ply
format ascii 1.0
comment PCL generated
element vertex 575
property float x
property float y
property float z
property uchar red
property uchar green
property uchar blue
property float nx
property float ny
property float nz
property float curvature
element camera 0
property float view_px
property float view_py
property float view_pz
property float x_axisx
property float x_axisy
property float x_axisz
property float y_axisx
property float y_axisy
property float y_axisz
property float z_axisx
property float z_axisy
property float z_axisz
property float focal
property float scalex
property float scaley
property float centerx
property float centery
property int viewportx
property int viewporty
property float k1
property float k2
end_header
0.12114393 0.10657229 0.8130582 118 172 186 -0.56550699 -0.50405729 -0.65278494 0
0.12106425 0.10739505 0.81252331 113 172 185 -0.53485858 -0.4961189 -0.68395346 0
0.12098472 0.10821685 0.81198978 110 169 182 -0.50293076 -0.51546395 -0.69379938 0
0.12090057 0.10903323 0.81142485 94 162 176 -0.46989709 -0.56012875 -0.68224084 0
0.12080485 0.10983794 0.81078273 100 168 182 -0.43397868 -0.62508982 -0.64878756 0
0.12069258 0.11062606 0.81002933 103 174 192 -0.40030417 -0.6838001 -0.61006057 0
0.12056716 0.11140032 0.80918747 105 176 194 -0.37633103 -0.71719891 -0.5865159 0
0.12043624 0.11216761 0.80830878 95 169 186 -0.36554807 -0.73404056 -0.57232785 0
0.12030053 0.11292847 0.80739784 81 155 172 -0.36947104 -0.74027252 -0.561683 0
0.1201645 0.11368704 0.806485 89 168 185 -0.3928746 -0.72835457 -0.56138158 0
0.12003433 0.11444917 0.80561113 84 163 180 -0.43146574 -0.7029565 -0.56541103 0
0.11991027 0.11521532 0.80477893 86 162 180 -0.4707405 -0.68283474 -0.55869496 0
0.11978665 0.11597997 0.80394888 104 180 198 -0.50545603 -0.6689977 -0.54493713 0
0.11966453 0.11674436 0.80312973 110 181 199 -0.5364489 -0.65515089 -0.53197742 0
0.119543 0.11750738 0.80231351 115 186 204 -0.5570693 -0.65133822 -0.51520133 0
0.11941784 0.11826517 0.8014738 127 187 206 -0.56853813 -0.65433341 -0.49861044 0
0.1192904 0.11901873 0.80061817 126 186 205 -0.57473499 -0.65267462 -0.49365535 0
0.11916484 0.11977236 0.79977566 119 180 194 -0.57209724 -0.65412486 -0.49479842 0
0.11903764 0.12052255 0.79892236 107 168 182 -0.55366933 -0.66808319 -0.49710691 0
0.11890794 0.12126815 0.79805154 109 170 180 -0.52620739 -0.68127179 -0.50889564 0
0.11877994 0.12201371 0.79719257 112 173 183 -0.49092433 -0.68994141 -0.53195304 0
0.11865448 0.12275994 0.7963506 119 180 190 -0.44297001 -0.70483208 -0.55406612 0
0.11852775 0.12350298 0.79549968 113 174 184 -0.38343972 -0.72402304 -0.57338011 0
0.11840064 0.12424377 0.79464668 114 168 182 -0.32912013 -0.73352623 -0.59465897 0
0.11827606 0.12498537 0.79381043 112 166 180 -0.28111669 -0.73832971 -0.61306 0
0.11815176 0.12572543 0.79297638 112 173 187 -0.24483457 -0.73847067 -0.6282652 0
0.11803076 0.12646724 0.79216421 111 172 186 -0.22568588 -0.71955037 -0.65674448 0
0.11791994 0.1272182 0.79142052 106 170 190 -0.22191231 -0.68409723 -0.69481361 0
0.11781913 0.1279784 0.79074395 104 168 188 -0.22302435 -0.64762753 -0.72858673 0
0.11772638 0.128746 0.79012173 96 167 189 -0.23677374 -0.60126996 -0.76315969 0
0.11764558 0.12952523 0.78957909 90 161 183 -0.26095819 -0.54245913 -0.79852289 0
0.11757495 0.13031474 0.78910553 70 148 170 -0.29790413 -0.49545974 -0.81594902 0
0.11750966 0.131109 0.78866702 65 143 165 -0.35124809 -0.47040445 -0.80953342 0
0.11744571 0.13190392 0.78823817 69 143 164 -0.4216482 -0.46569595 -0.77803594 0
0.11737886 0.13269445 0.78778893 57 131 152 -0.49493679 -0.48200205 -0.72298807 0
0.11730412 0.13347514 0.78728759 49 120 140 -0.56291509 -0.5041551 -0.65494609 0
0.11722111 0.13424532 0.78673071 49 120 140 -0.62091291 -0.51202852 -0.59354353 0
0.11713355 0.13500893 0.78614289 40 107 128 -0.66691136 -0.50700819 -0.5460512 0
0.11704297 0.13576771 0.78553474 36 103 124 -0.69418013 -0.51518804 -0.50268805 0
0.11694296 0.13651417 0.78486341 59 118 133 -0.70233065 -0.54441088 -0.4586376 0
0.11683033 0.1372444 0.78410751 114 173 188 -0.69519681 -0.58529872 -0.41728503 0
0.11670186 0.13795419 0.78324527 145 204 219 -0.67090112 -0.63951129 -0.37538907 0
0.11655139 0.13863592 0.78223544 149 208 223 -0.63308054 -0.69785178 -0.3349807 0
0.11637864 0.13928877 0.78107584 134 188 202 -0.59437841 -0.7419275 -0.31025448 0
0.11619412 0.1399249 0.77983749 119 173 187 -0.55465108 -0.77583343 -0.30074012 0
0.11599945 0.14054611 0.77853155 128 177 191 -0.51123923 -0.80461109 -0.30205205 0
0.11580222 0.14116119 0.77720755 121 170 184 -0.47502717 -0.81961882 -0.32027224 0
0.11561311 0.14178334 0.77593833 115 165 176 -0.4485009 -0.82021481 -0.35509819 0
0.11543772 0.14241964 0.77476114 121 171 182 -0.43238238 -0.81028605 -0.39557797 0
0.11527552 0.14306973 0.77367234 119 172 180 -0.43657321 -0.78164369 -0.44546261 0
0.11513538 0.14374498 0.7727319 120 173 181 -0.46899074 -0.720828 -0.5103476 0
0.11502014 0.1444494 0.77195835 121 171 182 -0.51945513 -0.63665402 -0.56994581 0
0.1149254 0.14517803 0.77132249 130 180 191 -0.57467419 -0.54388642 -0.61150396 0
0.11484827 0.14592767 0.77080506 121 175 189 -0.61848176 -0.47132105 -0.62875807 0
0.11477854 0.1466856 0.77033687 112 166 180 -0.62722224 -0.36414543 -0.68846965 0
0.11474036 0.14748308 0.77008069 108 168 185 -0.62391829 -0.13235374 -0.77020025 0
0.11474093 0.14833009 0.77008474 97 157 174 -0.58176869 0.15980245 -0.79750139 0
0.11478753 0.14923699 0.77039772 90 150 169 -0.52101326 0.38615558 -0.76120251 0
0.11486846 0.15018938 0.77094066 88 148 167 -0.46772346 0.50275499 -0.72696096 0
0.11496926 0.15116908 0.771617 88 152 174 -0.43244568 0.5327217 -0.72746032 0
0.11506428 0.15214266 0.77225465 84 148 170 -0.37681639 0.53634024 -0.75521433 0
0.11516142 0.15312055 0.77290702 78 148 170 -0.30245516 0.55113912 -0.77766734 0
0.11525978 0.15410131 0.77356672 79 149 171 -0.23634578 0.56705183 -0.78904563 0
0.11536339 0.15509076 0.77426243 81 148 169 -0.18384117 0.58957809 -0.7865113 0
0.1154746 0.1560919 0.77500868 83 150 171 -0.14150748 0.61162251 -0.77839166 0
0.11559291 0.15710439 0.77580291 82 149 170 -0.10415639 0.62828159 -0.77098233 0
0.11571667 0.15812612 0.77663368 81 148 169 -0.070677891 0.6656813 -0.74288172 0
0.11586698 0.15918601 0.77764213 80 147 168 -0.040524304 0.72253227 -0.69014859 0
0.11605236 0.16029662 0.77888632 79 146 167 -0.019138968 0.78433573 -0.62004113 0
0.11630062 0.16149728 0.78055245 80 147 168 -0.0074991621 0.8310588 -0.55613405 0
0.11660378 0.16277832 0.78258741 79 146 167 0.0026379067 0.86902303 -0.49476466 0
0.11701109 0.16420989 0.78532076 77 140 167 0.011758821 0.86226422 -0.50632221 0
0.11728729 0.16546255 0.78717452 77 140 167 0.01254161 0.90886497 -0.41690192 0
0.12296887 0.18073334 0.82530648 49 130 156 0.0015765619 0.89801013 -0.43997183 0
0.12343407 0.18232751 0.82842886 50 130 156 -0.044077434 0.88234818 -0.46852848 0
0.12382076 0.18381187 0.83102393 61 141 167 -0.12468402 0.82553548 -0.55040455 0
0.12401512 0.18501501 0.83232814 80 151 173 -0.21415043 0.68646538 -0.69491351 0
0.12414649 0.18612675 0.83321029 82 153 175 -0.28099731 0.53612107 -0.79599917 0
0.12421873 0.18715115 0.83369499 85 150 167 -0.37401837 0.23782276 -0.89640981 0
0.12421873 0.18806733 0.83369499 87 152 169 -0.40557519 -0 -0.91406173 0
0.12456222 0.1950182 0.83600008 96 155 170 -3.2441465e-05 -0.00012976612 -1.0000001 0
0.12456212 0.19593687 0.83599997 96 155 170 -3.3212564e-05 -0.050256293 -0.99873638 0
0.12454857 0.19683407 0.83590871 90 150 167 -0.028530775 -0.13268572 -0.99074733 0
0.12452678 0.19771804 0.83576244 87 147 164 -0.043651916 -0.19499151 -0.97983307 0
0.12449692 0.1985888 0.83556181 88 148 165 -0.04503059 -0.30381164 -0.95166743 0
0.12444612 0.19942567 0.83522111 88 148 165 -0.022516439 -0.42186326 -0.90637982 0
0.1243827 0.20024139 0.83479548 98 158 175 0.02636048 -0.47098207 -0.88174886 0
0.12431616 0.20105116 0.83434898 101 161 178 0.078639716 -0.46967912 -0.87932771 0
0.12425189 0.20186356 0.83391732 97 157 174 0.11612648 -0.43859372 -0.89115107 0
0.124194 0.20268549 0.8335287 91 151 168 0.13548397 -0.36708498 -0.92026776 0
0.12415057 0.20353037 0.83323753 85 149 169 0.13419272 -0.25919411 -0.95645744 0
0.12412319 0.20440094 0.83305389 82 146 166 0.12013216 -0.15034124 -0.98130816 0
0.12410955 0.20529385 0.83296233 68 139 157 0.10544816 -0.066658892 -0.99218816 0
0.12410494 0.20620145 0.83293098 59 130 148 0.09358149 -0.013950393 -0.99551386 0
0.12410568 0.20711811 0.83293641 64 129 146 0.080838613 0.012846459 -0.99664444 0
0.12410849 0.20803806 0.83295494 67 132 149 0.067475364 0.022629736 -0.9974643 0
0.124112 0.20895933 0.83297861 83 134 154 0.055600796 0.026408287 -0.9981038 0
0.12375896 0.082705133 0.82452756 138 176 180 -0.21923302 -0.065463245 -0.97347403 0
0.12374888 0.083604425 0.82446045 121 170 177 -0.19425209 -0.098114125 -0.97603273 0
0.12373263 0.084499344 0.82435244 121 170 177 -0.15242933 -0.12892072 -0.97986978 0
0.12371431 0.085392632 0.82423055 116 164 176 -0.10354186 -0.12519416 -0.98671454 0
0.12369911 0.086287774 0.82412905 120 168 180 -0.063462339 -0.11239472 -0.99163508 0
0.12368418 0.087182909 0.82402956 114 167 177 -0.036299318 -0.12778865 -0.99113697 0
0.12366476 0.088074602 0.82389992 119 172 182 -0.020092485 -0.17934273 -0.98358142 0
0.12363574 0.08895912 0.82370669 118 171 181 -0.011148233 -0.2562609 -0.96654332 0
0.12359483 0.089834549 0.82343411 115 168 178 -0.0034234275 -0.3333495 -0.94279724 0
0.1235433 0.09070164 0.82309091 112 171 184 0.0085796583 -0.38534296 -0.92273366 0
0.12348631 0.091563851 0.82271093 109 168 181 0.013912005 -0.40592986 -0.91379833 0
0.12342815 0.092424423 0.82232386 108 168 176 0.001771959 -0.41530004 -0.90968275 0
0.12336845 0.093282945 0.82192588 110 170 178 -0.029221423 -0.44057199 -0.89724165 0
0.1233026 0.094135933 0.82148755 112 172 180 -0.075539269 -0.4919183 -0.86735821 0
0.12322589 0.09497954 0.82097608 124 184 192 -0.13206449 -0.54536223 -0.82773125 0
0.12314047 0.095815249 0.82040697 105 162 173 -0.1889288 -0.5903433 -0.78472966 0
0.1230448 0.096641608 0.81976932 111 168 179 -0.24345037 -0.62667322 -0.74027878 0
0.1229413 0.097460441 0.81907976 112 166 180 -0.30297929 -0.64186847 -0.70442063 0
0.12283489 0.098275416 0.81837088 112 166 180 -0.36806718 -0.63314843 -0.68091828 0
0.1227308 0.09909074 0.81767762 123 177 189 -0.43236312 -0.61217898 -0.6620416 0
0.12262871 0.099906117 0.81699765 120 174 186 -0.49755979 -0.57398796 -0.65036315 0
0.12253629 0.10072792 0.81638151 123 178 187 -0.56210798 -0.51752013 -0.64514148 0
0.122453 0.10155606 0.81582719 117 172 181 -0.60803634 -0.4791868 -0.63298655 0
0.12237176 0.10238455 0.81528544 119 172 180 -0.63196462 -0.47054049 -0.61580223 0
0.12228861 0.10321034 0.81473184 117 170 178 -0.63745034 -0.47624126 -0.60568249 0
0.12220369 0.10403335 0.81416589 121 172 178 -0.62277132 -0.49467438 -0.60617912 0
0.12211447 0.10485145 0.81357151 120 171 177 -0.59400463 -0.51273435 -0.61988872 0
0.12202618 0.10566905 0.81298304 116 170 184 -0.56630707 -0.50138623 -0.65414697 0
0.12194728 0.10649356 0.81245762 119 173 187 -0.53755504 -0.47455785 -0.69701463 0
0.12187473 0.10732249 0.81197411 116 175 188 -0.5048095 -0.47189799 -0.72282761 0
0.12180045 0.10814885 0.81147951 115 174 187 -0.47154546 -0.499156 -0.72697198 0
0.12172014 0.10896867 0.81094408 95 163 177 -0.43654203 -0.55117536 -0.71108145 0
0.12162714 0.10977592 0.81032473 101 169 183 -0.397663 -0.62215275 -0.67438126 0
0.12151688 0.11056609 0.80959022 106 177 195 -0.36083758 -0.68456262 -0.63338006 0
0.12139307 0.1113422 0.80876523 104 175 193 -0.33431402 -0.72143584 -0.60643578 0
0.12126225 0.11211003 0.80789387 97 171 188 -0.32035351 -0.74374926 -0.58669472 0
0.12112448 0.11286942 0.80697584 89 163 180 -0.32069579 -0.75666732 -0.56974441 0
0.12098397 0.11362424 0.80603951 99 178 195 -0.33904281 -0.7524631 -0.56466728 0
0.12084719 0.1143806 0.80512857 93 172 189 -0.37061977 -0.73489124 -0.56795764 0
0.1207158 0.11514007 0.80425316 87 163 181 -0.40212131 -0.72078305 -0.56459749 0
0.12058454 0.11589773 0.80337882 103 179 197 -0.43046725 -0.71101272 -0.55602062 0
0.12045524 0.11665533 0.80251724 110 181 199 -0.45793775 -0.69952089 -0.54860145 0
0.12032701 0.11741211 0.8016628 107 178 196 -0.48053655 -0.69461244 -0.53534865 0
0.12019623 0.11816452 0.80079156 108 168 187 -0.49901375 -0.69205427 -0.52158052 0
0.12006528 0.11891486 0.79991931 113 173 192 -0.51555061 -0.6810689 -0.51995438 0
0.11993902 0.11966784 0.79907745 113 174 188 -0.5233016 -0.67098868 -0.52529013 0
0.1198142 0.12042052 0.79824615 102 163 177 -0.51487869 -0.67253655 -0.53159642 0
0.11968967 0.12117165 0.79741645 108 169 179 -0.49704647 -0.67414135 -0.5463317 0
0.11956901 0.12192494 0.79661286 106 167 177 -0.47313014 -0.67161894 -0.57015431 0
0.11945241 0.1226806 0.79583585 112 173 183 -0.43798581 -0.67726493 -0.59116888 0
0.11933547 0.1234342 0.79505682 111 172 182 -0.39120764 -0.69228977 -0.60637563 0
0.1192174 0.12418489 0.79427004 107 161 175 -0.34454244 -0.70288295 -0.62229097 0
0.11910055 0.12493516 0.79349154 116 170 184 -0.29872048 -0.71228707 -0.63514829 0
0.11898202 0.12568192 0.7927019 113 174 188 -0.2596339 -0.7194308 -0.64421225 0
0.11886459 0.12642813 0.79191935 113 174 188 -0.23542151 -0.70692289 -0.66696078 0
0.11875545 0.12718153 0.79119241 104 168 188 -0.22380127 -0.67585921 -0.70223016 0
0.11865567 0.12794338 0.79052758 104 168 188 -0.21439494 -0.64425498 -0.73414594 0
0.11856244 0.12871096 0.78990662 100 171 193 -0.21345785 -0.60518742 -0.76693153 0
0.11847992 0.1294888 0.78935701 92 163 185 -0.2208266 -0.55741745 -0.80032587 0
0.11840549 0.13027436 0.78886104 98 176 198 -0.24102443 -0.52892238 -0.81372499 0
0.11833311 0.13106103 0.78837854 86 164 186 -0.27959934 -0.52745944 -0.80225348 0
0.11825832 0.13184404 0.7878803 101 175 196 -0.33880416 -0.54358202 -0.76793909 0
0.11817779 0.13261949 0.78734392 89 163 184 -0.40477455 -0.57256103 -0.71297371 0
0.11808744 0.13338263 0.78674173 76 147 167 -0.47142205 -0.59840667 -0.64782012 0
0.11798839 0.13413465 0.78608215 78 149 169 -0.53461248 -0.60223198 -0.59287971 0
0.11788619 0.13488145 0.78540075 85 152 173 -0.59060186 -0.58798283 -0.55268955 0
0.11778321 0.135626 0.78471482 90 157 178 -0.62854737 -0.58381504 -0.51389533 0
0.11767302 0.13636069 0.78398097 131 190 205 -0.64681071 -0.59942067 -0.47151965 0
0.11755281 0.137082 0.78317994 145 204 219 -0.64890194 -0.62699407 -0.43105066 0
0.11741921 0.13778594 0.78228992 145 204 219 -0.63358337 -0.6686573 -0.38919079 0
0.11726622 0.1384649 0.78127056 135 194 209 -0.60551637 -0.71471095 -0.35005471 0
0.11709473 0.13911973 0.780128 119 173 187 -0.57693172 -0.74753249 -0.32915798 0
0.11691583 0.13976318 0.77893627 114 168 182 -0.54522049 -0.772888 -0.32462081 0
0.11673043 0.14039615 0.77770084 131 180 194 -0.50696492 -0.79639614 -0.32975703 0
0.11654411 0.1410253 0.77645957 114 163 177 -0.47250265 -0.80861294 -0.35055166 0
0.11636598 0.14166175 0.77527273 117 167 178 -0.44446242 -0.80872732 -0.3852444 0
0.11619916 0.14230947 0.77416176 122 172 183 -0.42280629 -0.80213231 -0.42168561 0
0.11604215 0.14296669 0.77311516 120 173 181 -0.41679195 -0.78038228 -0.46614173 0
0.11590347 0.14364441 0.77219129 120 173 181 -0.43234777 -0.73152149 -0.52721119 0
0.11578619 0.1443468 0.77141011 119 169 180 -0.46055117 -0.66381299 -0.58927494 0
0.11568755 0.14507087 0.77075315 129 179 190 -0.4901174 -0.58472514 -0.64643753 0
0.11560706 0.14581631 0.7702167 120 174 188 -0.50734347 -0.49329102 -0.70658797 0
0.11554448 0.14658336 0.76979995 110 164 178 -0.4717983 -0.35288167 -0.80801046 0
0.11551236 0.14738825 0.76958549 100 160 177 -0.4259921 -0.10974529 -0.89804608 0
0.11551619 0.14823887 0.76961106 93 153 170 -0.37245047 0.18283199 -0.90986431 0
0.11556219 0.14914402 0.76991791 87 147 166 -0.33340359 0.40938932 -0.84925997 0
0.11564299 0.15009496 0.77045602 91 151 170 -0.31140155 0.53017521 -0.78863382 0
0.1157463 0.15107647 0.77114433 88 152 174 -0.30195245 0.57384491 -0.76126653 0
0.11585325 0.15206434 0.77185714 84 148 170 -0.25753459 0.58941507 -0.76568002 0
0.11596441 0.15305918 0.77259725 78 148 170 -0.20033099 0.59727138 -0.77661735 0
0.11607446 0.15405424 0.77333045 79 149 171 -0.1495959 0.6006465 -0.78539479 0
0.11618701 0.15505435 0.77408069 85 152 173 -0.1080703 0.61266583 -0.78291851 0
0.11630575 0.15606429 0.77487147 87 154 175 -0.072141908 0.62946337 -0.77367407 0
0.11643169 0.15708569 0.77571058 85 152 173 -0.036144167 0.64321029 -0.76483613 0
0.11656289 0.15811619 0.77658492 82 149 170 -0.0001051045 0.67572653 -0.73715234 0
0.11672042 0.15918441 0.77763438 79 146 167 0.027758788 0.72580332 -0.68734199 0
0.11691125 0.1603006 0.77890563 78 145 166 0.037319984 0.78257179 -0.62144083 0
0.11716271 0.16150318 0.78058094 81 148 169 0.031231198 0.82852811 -0.55907595 0
0.11746846 0.16278467 0.78261805 80 147 168 0.021911265 0.86782837 -0.49638066 0
0.11787979 0.16421774 0.78535849 78 141 168 0.021026256 0.86189198 -0.50665593 0
0.1181588 0.16547154 0.78721744 78 141 168 0.013955932 0.90954566 -0.41536981 0
0.12388831 0.18075149 0.82538933 44 125 151 0.019965751 0.89246535 -0.45067406 0
0.12433502 0.18231358 0.82836556 45 125 151 -0.016692746 0.87437743 -0.48495924 0
0.12469792 0.18375866 0.83078337 59 139 165 -0.094641 0.81492293 -0.57178998 0
0.12488508 0.18494877 0.83203024 89 160 182 -0.17351288 0.67597347 -0.7162075 0
0.12501125 0.18605094 0.83287096 83 154 176 -0.24812897 0.52235484 -0.81582928 0
0.1250799 0.18706886 0.83332843 87 152 169 -0.33489665 0.22814426 -0.91421795 0
0.12507989 0.1879846 0.83332837 96 161 178 -0.3617475 -6.6567707e-05 -0.93227613 0
0.12548095 0.19501816 0.83600003 89 148 163 0 -0.00012976059 -1 0
0.12548091 0.19593684 0.83599991 87 146 161 3.1233212e-05 -0.069434464 -0.99758649 0
0.12546203 0.19682592 0.8358742 97 157 174 -0.04309614 -0.16306964 -0.98567289 0
0.12543726 0.19770546 0.83570921 91 151 168 -0.06211352 -0.20814763 -0.97612327 0
0.12540658 0.19857521 0.83550471 93 153 170 -0.062002975 -0.29305372 -0.95408344 0
0.12535907 0.19941783 0.83518833 99 159 176 -0.026532035 -0.3819077 -0.92381954 0
0.12530331 0.20024653 0.83481675 106 166 183 0.035466928 -0.4203113 -0.9066866 0
0.12524363 0.20106803 0.83441883 100 160 177 0.079255685 -0.43101701 -0.89885646 0
0.12518357 0.20188816 0.83401901 92 152 169 0.10517015 -0.417824 -0.90242028 0
0.1251272 0.20271343 0.83364344 94 154 171 0.1137668 -0.3667165 -0.92335057 0
0.12508225 0.20355636 0.83334398 82 146 166 0.10069263 -0.27578524 -0.95593071 0
0.12505202 0.20442268 0.8331424 78 142 162 0.078131802 -0.17096247 -0.98217469 0
0.12503587 0.20531167 0.83303475 65 136 154 0.058682751 -0.082927033 -0.99482632 0
0.12502937 0.20621642 0.83299154 58 129 147 0.045311667 -0.026619598 -0.99861825 0
0.12502852 0.20713048 0.83298594 63 128 145 0.034488201 0.0018119923 -0.99940354 0
0.12502986 0.20804806 0.83299488 64 129 146 0.027000669 0.013694477 -0.99954158 0
0.12503232 0.20896758 0.83301121 83 134 154 0.021813056 0.020393558 -0.9995541 0
0.12464263 0.082690239 0.82437903 137 177 178 -0.10828561 -0.048175137 -0.99295199 0
0.12463521 0.0835912 0.82432997 118 172 173 -0.095014974 -0.071627885 -0.9928956 0
0.12462328 0.084488988 0.82425112 114 168 169 -0.07339444 -0.093610927 -0.99290001 0
0.12460995 0.085385613 0.82416266 113 168 175 -0.048723165 -0.091860309 -0.99457914 0
0.12459841 0.086283334 0.82408661 112 167 174 -0.031994756 -0.089217372 -0.99549818 0
0.12458571 0.087180033 0.82400262 112 167 176 -0.024407063 -0.11446397 -0.99312752 0
0.1245674 0.088072561 0.82388115 113 168 177 -0.022965496 -0.1722502 -0.98478556 0
0.12453884 0.088957608 0.8236928 115 168 178 -0.023041658 -0.25087214 -0.96774596 0
0.12449854 0.089833684 0.82342625 115 168 178 -0.020154819 -0.32524204 -0.94541597 0
0.1244484 0.090702042 0.82309461 119 168 182 -0.010858592 -0.37846434 -0.92555219 0
0.12439172 0.091564804 0.82271963 119 168 182 -0.0073981616 -0.41068149 -0.91174883 0
0.12433127 0.092424013 0.82231992 110 167 178 -0.019957287 -0.43619582 -0.89963049 0
0.1242665 0.093279034 0.82189125 114 171 182 -0.049080025 -0.47478843 -0.87873036 0
0.12419337 0.094126754 0.82140762 118 175 186 -0.090623215 -0.53369123 -0.84080982 0
0.12410741 0.094963655 0.82083911 121 178 189 -0.13955528 -0.58790296 -0.7968027 0
0.12401231 0.095792279 0.82021046 116 170 182 -0.18777001 -0.62985498 -0.75367451 0
0.12390676 0.096611314 0.81951213 109 163 175 -0.23316477 -0.66528875 -0.70924276 0
0.12379222 0.097421698 0.81875437 110 164 176 -0.28306505 -0.68274724 -0.67359519 0
0.12367389 0.098227516 0.81797183 118 172 184 -0.33912602 -0.67706591 -0.65312737 0
0.12355791 0.099033467 0.81720519 120 169 185 -0.39583057 -0.65917361 -0.63938123 0
0.12344411 0.099839434 0.81645226 123 172 188 -0.45489535 -0.62518799 -0.63420057 0
0.12334037 0.10065196 0.81576574 125 172 189 -0.51688004 -0.56954402 -0.6391046 0
0.12324806 0.10147243 0.81515557 124 171 188 -0.56368977 -0.52331376 -0.63905913 0
0.1231608 0.10229575 0.81457806 122 167 184 -0.5899018 -0.50081873 -0.63340074 0
0.12307543 0.10311943 0.81401408 118 163 180 -0.60000831 -0.4876433 -0.63418758 0
0.12299307 0.10394432 0.81346911 113 158 175 -0.59089482 -0.48628643 -0.64371485 0
0.12291019 0.10476758 0.81292069 113 158 175 -0.56642145 -0.49112788 -0.6617856 0
0.12282941 0.10559154 0.81238675 117 166 182 -0.54189825 -0.47218651 -0.69525969 0
0.12275814 0.10642248 0.81191528 122 171 187 -0.51658225 -0.44301987 -0.73271841 0
0.12269185 0.10725678 0.81147689 121 173 188 -0.48595098 -0.44554877 -0.75188959 0
0.12262228 0.10808719 0.81101662 119 171 186 -0.4531064 -0.47944003 -0.75155288 0
0.12254575 0.10891036 0.8105101 111 168 181 -0.41598523 -0.53650039 -0.73425049 0
0.12245606 0.10972071 0.80991721 111 168 181 -0.3721346 -0.61245316 -0.69743592 0
0.12234873 0.11051375 0.8092072 109 168 181 -0.32949781 -0.67997825 -0.65502733 0
0.12222686 0.11129208 0.80840129 109 168 181 -0.29974601 -0.72192782 -0.6236766 0
0.12209629 0.11206062 0.80753797 106 175 184 -0.28435707 -0.75019532 -0.59694904 0
0.12195629 0.11281855 0.80661184 109 178 187 -0.28426042 -0.76901215 -0.57255256 0
0.12181124 0.11356969 0.80565262 109 175 185 -0.30091798 -0.76985711 -0.56282198 0
0.12166879 0.11432115 0.80471021 105 171 181 -0.3269217 -0.75652832 -0.5663808 0
0.1215316 0.11507556 0.80380261 113 174 186 -0.34929156 -0.74573767 -0.56733662 0
0.12139474 0.11582834 0.80289781 114 175 187 -0.36677596 -0.73958129 -0.56435353 0
0.12125992 0.11658105 0.80200624 114 173 186 -0.38480037 -0.73256963 -0.56148952 0
0.12112591 0.11733256 0.80111951 112 171 184 -0.40350375 -0.73064321 -0.55076796 0
0.12098937 0.11807964 0.80021644 118 171 181 -0.42487293 -0.72707605 -0.53929901 0
0.12085391 0.11882583 0.79932058 118 171 181 -0.44976455 -0.71042871 -0.54129738 0
0.12072542 0.11957694 0.79847062 120 173 183 -0.46769938 -0.69064254 -0.55160695 0
0.1206014 0.12033068 0.79765052 122 175 185 -0.46919546 -0.68123865 -0.56193388 0
0.12047992 0.12108516 0.79684716 121 176 185 -0.46129528 -0.67306703 -0.57808959 0
0.1203638 0.12184325 0.79607904 118 173 182 -0.44960326 -0.66118979 -0.60057068 0
0.12025268 0.12260482 0.79534423 116 174 182 -0.4292956 -0.6577372 -0.61894029 0
0.12014237 0.1233656 0.79461485 114 172 180 -0.39812616 -0.66619349 -0.63062018 0
0.12003119 0.12412381 0.79387939 105 164 175 -0.36172616 -0.67392653 -0.64418727 0
0.1199213 0.12488183 0.79315275 107 166 177 -0.31897157 -0.68452322 -0.65550369 0
0.11980889 0.1256355 0.79240894 110 169 180 -0.27523053 -0.6971187 -0.66202241 0
0.11969586 0.12638696 0.79166156 113 172 183 -0.24347199 -0.69009918 -0.68153101 0
0.11958975 0.12714411 0.79095966 111 172 186 -0.22421239 -0.66207141 -0.71511561 0
0.11949246 0.12790915 0.79031605 108 169 183 -0.20791279 -0.63325489 -0.74549347 0
0.11940061 0.12867871 0.78970885 106 170 183 -0.19757029 -0.59915549 -0.77587289 0
0.1193184 0.12945729 0.78916484 105 169 182 -0.19390635 -0.5604158 -0.80519211 0
0.11924201 0.13024108 0.78865963 107 171 182 -0.1992424 -0.54787117 -0.81248981 0
0.11916456 0.13102256 0.78814709 106 170 181 -0.21864916 -0.56723851 -0.79399812 0
0.1190808 0.13179599 0.78759319 100 164 175 -0.25760806 -0.6018396 -0.75592804 0
0.11898864 0.13255885 0.78698391 95 159 170 -0.3060317 -0.64350319 -0.70160413 0
0.11888427 0.13330661 0.78629339 95 159 170 -0.36101654 -0.67720419 -0.64114076 0
0.11877037 0.13404213 0.7855401 104 168 179 -0.42124802 -0.68454039 -0.59494084 0
0.11865383 0.13477302 0.7847693 119 183 194 -0.48274386 -0.66943222 -0.56464046 0
0.11853837 0.13550349 0.78400588 128 192 203 -0.53000456 -0.65944308 -0.53313237 0
0.11841755 0.13622607 0.78320688 134 183 197 -0.55849963 -0.66575551 -0.49482095 0
0.11828907 0.13693804 0.78235716 135 184 198 -0.56982762 -0.68282771 -0.45721194 0
0.11814973 0.13763547 0.78143579 133 182 196 -0.5618155 -0.71437114 -0.41717771 0
0.11799369 0.13831127 0.78040344 129 178 192 -0.54024518 -0.75045121 -0.38073382 0
0.11782297 0.13896744 0.77927405 122 171 185 -0.5185318 -0.77325124 -0.36497587 0
0.11764924 0.13961765 0.77812505 119 168 182 -0.49287951 -0.78941679 -0.36591107 0
0.11747225 0.14026147 0.77695471 115 164 178 -0.45936555 -0.80569625 -0.37394747 0
0.11729596 0.14090349 0.77578861 112 161 175 -0.42915109 -0.81219345 -0.3951849 0
0.1171276 0.1415526 0.77467543 125 173 185 -0.40395439 -0.80884767 -0.42730132 0
0.11696862 0.14221059 0.77362382 122 170 182 -0.38302988 -0.80209595 -0.4581815 0
0.11681685 0.14287511 0.77262002 121 171 180 -0.37316495 -0.78251755 -0.49841183 0
0.11668145 0.14355749 0.77172416 122 172 181 -0.37658134 -0.73790801 -0.56006992 0
0.11656597 0.1442627 0.77096051 122 170 182 -0.38297996 -0.67451876 -0.63115036 0
0.11646944 0.14498974 0.77032214 121 169 181 -0.38235226 -0.5902524 -0.71092123 0
0.1163942 0.14574207 0.76982462 117 169 184 -0.35882133 -0.46611694 -0.80869168 0
0.11634409 0.14652489 0.76949292 117 169 184 -0.28548044 -0.28554741 -0.91485715 0
0.11632208 0.14734267 0.76934755 96 159 175 -0.20833051 -0.051384028 -0.97670776 0
0.11633117 0.14819968 0.76940757 95 158 174 -0.15624061 0.20352803 -0.96652222 0
0.11637684 0.14910369 0.76970953 87 152 169 -0.14116962 0.40611386 -0.90285259 0
0.11645404 0.15004903 0.77022022 81 146 163 -0.14795782 0.52439439 -0.83852196 0
0.11655375 0.15102462 0.77087963 79 149 169 -0.15815811 0.58337641 -0.79665416 0
0.11666563 0.15201756 0.77161974 80 150 170 -0.13795352 0.61296904 -0.77797043 0
0.1167855 0.15302263 0.77241278 78 149 171 -0.10500399 0.62162739 -0.77624327 0
0.11690414 0.15402772 0.77319723 82 153 175 -0.072404578 0.62044668 -0.78089911 0
0.1170241 0.1550363 0.77399057 82 146 168 -0.040754236 0.62797207 -0.77716821 0
0.11714975 0.15605429 0.77482188 83 147 169 -0.009043199 0.64279175 -0.76598752 0
0.11728355 0.15708493 0.77570665 84 148 170 0.025687428 0.65609455 -0.75424153 0
0.11742366 0.15812606 0.77663338 84 148 170 0.061101336 0.68479204 -0.72617251 0
0.11758963 0.15920417 0.77773088 88 152 174 0.084837988 0.72723329 -0.68112707 0
0.1177856 0.16032557 0.77902687 88 152 174 0.085053675 0.77780437 -0.62272489 0
0.11803744 0.16152625 0.7806924 87 151 173 0.063560739 0.82341713 -0.56386548 0
0.11834215 0.1628034 0.78270799 85 149 171 0.039385583 0.86513698 -0.49998665 0
0.11875413 0.16423334 0.78543299 81 151 171 0.031297259 0.86020488 -0.50898725 0
0.12429928 0.1791295 0.82210797 56 130 158 0.029637391 0.90009594 -0.43468243 0
0.12480457 0.18076481 0.82545012 46 120 148 0.010250223 0.88991529 -0.45601067 0
0.12523933 0.18230481 0.82832581 55 124 149 -0.014085994 0.86825961 -0.49591029 0
0.12558295 0.18371767 0.830598 69 138 163 -0.076034717 0.80412436 -0.58957845 0
0.12576342 0.18489584 0.83179212 91 150 172 -0.14063063 0.66393149 -0.73445088 0
0.12588461 0.18598889 0.83259338 93 152 174 -0.20346497 0.50774336 -0.83713722 0
0.12594962 0.18700038 0.83302331 99 157 177 -0.27522174 0.21821751 -0.9362874 0
0.12594964 0.18791582 0.83302337 105 163 183 -0.2962217 6.7010107e-05 -0.95511925 0
0.12639971 0.1950182 0.83600008 86 147 161 0 -6.4883454e-05 -1 0
0.12639964 0.19593684 0.83600003 87 148 162 3.3808425e-05 -0.093154892 -0.99565166 0
0.12637424 0.19681598 0.83583188 85 148 164 -0.049262688 -0.19559573 -0.97944653 0
0.12634705 0.19769196 0.83565217 92 155 171 -0.058318362 -0.21421179 -0.97504473 0
0.12631674 0.19856258 0.8354516 93 156 172 -0.047610462 -0.2694284 -0.96184283 0
0.12627466 0.19941427 0.83517331 92 155 171 -0.00036398385 -0.32945606 -0.94417083 0
0.1262273 0.20025702 0.83486038 104 164 181 0.05869497 -0.37182119 -0.92644697 0
0.12617223 0.20108655 0.83449566 101 161 178 0.080964394 -0.4061031 -0.9102335 0
0.12611425 0.20191085 0.83411247 96 154 172 0.088226296 -0.41058955 -0.90754187 0
0.12605762 0.20273642 0.83373809 98 156 174 0.084019437 -0.37808064 -0.92195219 0
0.12600963 0.20357507 0.83342046 91 155 175 0.062165841 -0.30102515 -0.95158774 0
0.12597556 0.2044356 0.83319521 71 135 155 0.035482354 -0.19622041 -0.97991759 0
0.12595651 0.20532019 0.83306909 63 133 151 0.015332835 -0.10063644 -0.9948051 0
0.12594821 0.20622201 0.83301407 69 139 157 0.0031190792 -0.038075451 -0.99926996 0
0.12594607 0.20713392 0.83299994 66 131 146 -0.0046646725 -0.0050886576 -0.99997616 0
0.12594682 0.2080505 0.83300477 69 134 149 -0.0075410865 0.010336848 -0.99991816 0
0.12594888 0.20896947 0.8330189 83 140 153 -0.0098285871 0.019268632 -0.99976611 0
0.12554173 0.082685724 0.82433408 141 181 182 -0.011041308 -0.042154353 -0.99905014 0
0.12553515 0.083587214 0.82429075 120 174 175 -0.0096616158 -0.0626444 -0.99798912 0
0.12552455 0.084485896 0.82422125 117 171 172 -0.0073502706 -0.081903435 -0.9966132 0
0.12551264 0.085383572 0.82414329 114 169 176 -0.004732504 -0.083077408 -0.99653184 0
0.1255018 0.086281769 0.82407165 113 168 175 -0.0076837977 -0.087542288 -0.99613124 0
0.12548867 0.087178245 0.82398576 113 168 177 -0.015752275 -0.11854774 -0.99282342 0
0.12546931 0.088070162 0.82385862 114 169 178 -0.027474113 -0.17841174 -0.9835723 0
0.12543985 0.088954598 0.8236649 115 168 178 -0.038369928 -0.25488016 -0.96621108 0
0.12539905 0.08983051 0.82339704 115 168 178 -0.045256175 -0.32417652 -0.94491351 0
0.12534936 0.090699382 0.82307065 119 168 182 -0.045006026 -0.37678 -0.92520887 0
0.12529247 0.091562279 0.82269698 119 168 182 -0.047588773 -0.41717041 -0.90758151 0
0.12522981 0.092420176 0.82228595 108 165 176 -0.058109868 -0.45436555 -0.88891798 0
0.12516063 0.093272202 0.82183158 109 166 177 -0.078700885 -0.5029819 -0.86070633 0
0.12508108 0.094115466 0.82130885 114 171 182 -0.10786383 -0.56700605 -0.81662083 0
0.12498704 0.09494666 0.82069188 115 172 183 -0.14299214 -0.62148875 -0.7702629 0
0.12488342 0.09576901 0.82001138 112 166 178 -0.18030208 -0.66184503 -0.72763473 0
0.12476882 0.096581437 0.81925899 111 165 177 -0.21814203 -0.69663072 -0.68346143 0
0.12464427 0.097384438 0.81844115 113 167 179 -0.25997612 -0.7153765 -0.64857459 0
0.12451543 0.098182231 0.81759489 119 173 185 -0.3077684 -0.712075 -0.63105291 0
0.12438902 0.098980136 0.81676507 123 172 188 -0.35680693 -0.69700992 -0.6219855 0
0.12426493 0.099778056 0.81595027 124 173 189 -0.40870699 -0.66707504 -0.62287211 0
0.1241514 0.10058271 0.81520468 128 175 192 -0.46566921 -0.6137895 -0.6375066 0
0.12405135 0.10139678 0.81454778 127 174 191 -0.51198244 -0.56268924 -0.64904135 0
0.1239589 0.10221568 0.81394082 126 171 188 -0.54035908 -0.52968556 -0.65379304 0
0.12387156 0.10303748 0.81336713 120 165 182 -0.55588889 -0.5009411 -0.6633594 0
0.12379082 0.10386359 0.81283724 118 163 180 -0.55459857 -0.48181242 -0.67843729 0
0.12371251 0.10469057 0.81232315 119 164 181 -0.53878969 -0.47403592 -0.69641632 0
0.12363733 0.10551905 0.81182915 119 168 184 -0.52231693 -0.44822985 -0.72544819 0
0.1235714 0.10635451 0.81139666 122 171 187 -0.505454 -0.41569963 -0.7561152 0
0.12351013 0.10719293 0.81099391 120 172 187 -0.48092052 -0.41897818 -0.77017713 0
0.12344491 0.10802706 0.81056577 119 171 186 -0.45039344 -0.45466343 -0.76839244 0
0.12337267 0.10885411 0.81009156 114 171 184 -0.41193205 -0.51320183 -0.75295156 0
0.1232876 0.10966866 0.80953294 114 171 184 -0.36346367 -0.59329522 -0.71825814 0
0.12318447 0.11046576 0.80885553 112 171 184 -0.31446013 -0.6683507 -0.67410856 0
0.12306517 0.11124675 0.80807209 112 171 184 -0.27983806 -0.71861947 -0.63661349 0
0.12293471 0.11201589 0.80721551 109 178 187 -0.26171494 -0.75449979 -0.60186005 0
0.12279207 0.11277196 0.80627882 109 178 187 -0.25968534 -0.77901089 -0.57070631 0
0.12264238 0.11351945 0.80529618 110 176 186 -0.27273345 -0.78308028 -0.5589292 0
0.12249505 0.11426704 0.8043291 109 175 185 -0.29215559 -0.77075654 -0.56619734 0
0.12235422 0.11501851 0.80340421 112 173 185 -0.30318463 -0.76047158 -0.57424915 0
0.12221467 0.11576919 0.80248785 114 175 187 -0.30567998 -0.75705707 -0.57742918 0
0.12207685 0.11651956 0.80158305 114 173 186 -0.30902067 -0.75580591 -0.57728994 0
0.12193848 0.11726734 0.80067426 112 171 184 -0.31842253 -0.76030469 -0.5661661 0
0.12179624 0.11800937 0.7997402 119 172 182 -0.33818096 -0.76026869 -0.55463964 0
0.1216552 0.11875051 0.79881394 119 172 182 -0.3689158 -0.74198991 -0.55977869 0
0.12152302 0.11949842 0.79794651 120 173 183 -0.39656618 -0.71476763 -0.57605767 0
0.12139843 0.12025181 0.7971279 124 177 187 -0.40787625 -0.69568413 -0.59132105 0
0.12127829 0.12100799 0.79633933 121 176 185 -0.40856394 -0.68004298 -0.60878319 0
0.12116433 0.12176853 0.79559076 118 173 182 -0.40664837 -0.66178656 -0.6298219 0
0.12105609 0.12253328 0.79488009 116 174 182 -0.39801204 -0.65119517 -0.64616656 0
0.12094964 0.12329827 0.79418135 114 172 180 -0.37982592 -0.65171981 -0.656501 0
0.12084365 0.1240622 0.79348522 108 167 178 -0.35256505 -0.65197283 -0.67128927 0
0.12074026 0.12482726 0.79280633 110 169 180 -0.31287807 -0.65829504 -0.68465698 0
0.12063464 0.12558858 0.79211313 113 172 183 -0.26466188 -0.67289132 -0.69077599 0
0.12052729 0.12634651 0.791408 115 174 185 -0.22625487 -0.67084002 -0.70624524 0
0.12042504 0.12710831 0.79073673 112 173 187 -0.2026494 -0.64652216 -0.73548776 0
0.12033065 0.12787691 0.79011691 112 173 187 -0.18634097 -0.62041092 -0.76181847 0
0.12024082 0.1286491 0.789527 107 171 184 -0.17593321 -0.58962518 -0.78828281 0
0.12015958 0.12942925 0.78899395 106 170 183 -0.1700822 -0.5560708 -0.81354612 0
0.12008298 0.13021323 0.78849089 103 167 178 -0.16525547 -0.5527932 -0.81676829 0
0.12000327 0.13099268 0.78796744 105 169 180 -0.16461755 -0.58620715 -0.79326057 0
0.11991418 0.1317607 0.78738236 107 171 182 -0.17836344 -0.63508391 -0.75156838 0
0.11981423 0.13251534 0.78672564 107 171 182 -0.20273054 -0.68809241 -0.69672745 0
0.11969937 0.13325211 0.78597194 106 170 181 -0.23741646 -0.73169452 -0.63894951 0
0.11957335 0.13397458 0.78514409 107 171 182 -0.28475234 -0.74854398 -0.59883052 0
0.11944389 0.13469145 0.78429425 113 177 188 -0.34260443 -0.74054563 -0.57811278 0
0.11931669 0.13540894 0.78345883 116 180 191 -0.39418104 -0.73170459 -0.55608428 0
0.11918548 0.13612008 0.7825976 128 177 191 -0.43140903 -0.73376364 -0.52485925 0
0.11904906 0.13682325 0.78170156 129 178 192 -0.45221573 -0.74312347 -0.49322259 0
0.11890462 0.13751523 0.78075308 127 176 190 -0.45128581 -0.76606548 -0.45769525 0
0.11874635 0.13818905 0.77971405 123 172 186 -0.43455577 -0.79404885 -0.42502674 0
0.11857665 0.13884723 0.77859992 119 168 182 -0.41736224 -0.80894959 -0.41401613 0
0.11840736 0.13950329 0.77748787 119 168 182 -0.39760184 -0.81665802 -0.41830915 0
0.11823685 0.14015564 0.7763685 116 165 179 -0.37244073 -0.8250894 -0.42487091 0
0.11806729 0.14080654 0.77525508 115 164 178 -0.35299411 -0.82467735 -0.44193047 0
0.11790531 0.14146417 0.7741915 124 172 184 -0.33892924 -0.81591815 -0.46840638 0
0.11775128 0.14212905 0.77318007 121 169 181 -0.32652259 -0.80626899 -0.49326807 0
0.11760346 0.14279915 0.77220923 122 172 181 -0.31932205 -0.78447551 -0.53163129 0
0.11747168 0.14348686 0.77134442 122 172 181 -0.31625915 -0.73666644 -0.59774798 0
0.11736047 0.14419785 0.77061403 123 171 183 -0.30661571 -0.666637 -0.67939824 0
0.11726961 0.14493236 0.77001727 121 169 181 -0.28297827 -0.56552732 -0.77466261 0
0.11720276 0.14569546 0.76957834 118 170 185 -0.23466003 -0.40844828 -0.88210237 0
0.11716379 0.14649254 0.76932299 115 167 182 -0.15748122 -0.2062328 -0.9657473 0
0.11715116 0.14732192 0.76923943 99 162 178 -0.085686311 0.006082111 -0.99630362 0
0.11716544 0.14818534 0.76933318 91 154 170 -0.042122234 0.21981435 -0.97463191 0
0.11721142 0.14908935 0.76963544 84 149 166 -0.032274745 0.39626631 -0.91756815 0
0.11728616 0.15003066 0.77012587 83 148 165 -0.042049151 0.51080173 -0.85866952 0
0.11738342 0.15100214 0.77076489 85 155 175 -0.054118615 0.57933456 -0.81329131 0
0.11749727 0.15199633 0.77151203 84 154 174 -0.052430503 0.61867666 -0.78389424 0
0.11762191 0.15300639 0.77233076 77 148 170 -0.040573265 0.6312421 -0.77452397 0
0.1177461 0.15401758 0.77314633 76 147 169 -0.023009501 0.63160419 -0.77494949 0
0.11787236 0.15503323 0.77397525 83 147 169 0.0019547401 0.63991654 -0.76844198 0
0.11800518 0.15605943 0.77484733 83 147 169 0.032561529 0.65523916 -0.7547195 0
0.11814745 0.15710005 0.77578151 84 148 170 0.066722758 0.66897619 -0.74028295 0
0.11829729 0.15815295 0.77676553 85 149 171 0.099183403 0.69447219 -0.71265084 0
0.11847217 0.15924154 0.77791357 87 151 173 0.11807005 0.72956872 -0.67363858 0
0.11867251 0.16036722 0.7792294 87 151 173 0.11294831 0.77267754 -0.62466973 0
0.11892162 0.16156198 0.78086507 85 149 171 0.079998575 0.81735438 -0.5705542 0
0.11922147 0.16282959 0.78283387 84 148 170 0.046206139 0.86202502 -0.5047552 0
0.11963132 0.16425262 0.78552514 79 149 169 -0.00097817509 0.86101288 -0.50858229 0
0.12521331 0.17914464 0.82217753 49 123 151 0.017194167 0.89959234 -0.43639216 0
0.12571342 0.18076721 0.82546103 30 104 132 0.0051128385 0.88830078 -0.45923385 0
0.12614293 0.18229514 0.82828194 38 107 132 -0.0088986931 0.86391824 -0.50355345 0
0.12647396 0.18368606 0.8304553 62 131 156 -0.053691138 0.79523617 -0.60391778 0
0.12664942 0.18485481 0.83160746 94 153 175 -0.10115469 0.65301043 -0.75056326 0
0.12676668 0.18594068 0.83237743 95 154 176 -0.14760377 0.49496239 -0.85628575 0
0.12682894 0.18694705 0.8327859 99 157 177 -0.19897901 0.20992905 -0.95725507 0
0.12682894 0.18786228 0.8327859 103 161 181 -0.21356012 -0 -0.9769299 0
0.12731838 0.19501816 0.83600003 92 153 167 -3.2440938e-05 -6.4878717e-05 -1 0
0.12731837 0.19593687 0.83599997 92 153 167 3.5093952e-05 -0.11858893 -0.99294341 0
0.1272859 0.19680531 0.83578658 86 149 165 -0.012323391 -0.22089456 -0.97521979 0
0.12725836 0.19768094 0.83560568 92 155 171 -0.0016332393 -0.20505522 -0.97874904 0
0.12723006 0.19855514 0.83542007 95 158 174 0.012622772 -0.23354602 -0.97226387 0
0.1271947 0.19941768 0.83518767 95 158 174 0.046578016 -0.27549955 -0.96017206 0
0.12715451 0.20027217 0.83492374 104 164 181 0.077183872 -0.34011167 -0.93721223 0
0.12710035 0.20110394 0.83456796 100 160 177 0.073863417 -0.40367854 -0.91191435 0
0.1270415 0.20192759 0.83418179 96 154 172 0.060768671 -0.41953757 -0.90570164 0
0.12698294 0.20275083 0.83379722 98 156 174 0.044047713 -0.39848348 -0.91611725 0
0.126931 0.20358373 0.8334561 81 145 165 0.017017057 -0.3298324 -0.9438861 0
0.12689288 0.20443825 0.83320594 63 127 147 -0.011002377 -0.22169745 -0.97505343 0
0.12687097 0.20531847 0.83306235 60 130 148 -0.030498343 -0.11697669 -0.9926663 0
0.12686111 0.20621787 0.8329972 70 140 158 -0.04240901 -0.047138091 -0.99798769 0
0.12685806 0.20712833 0.83297741 70 135 150 -0.049908794 -0.0088989129 -0.99871421 0
0.12685864 0.20804456 0.83298105 73 138 153 -0.053275868 0.0086343167 -0.99854255 0
0.12686047 0.20896302 0.83299315 87 144 157 -0.057717972 0.016713953 -0.99819303 0
0.12645152 0.082688257 0.82435912 142 182 183 0.063708857 -0.044726368 -0.99696577 0
0.12644435 0.08358945 0.82431257 120 174 175 0.057231553 -0.066524431 -0.99614209 0
0.12643287 0.084487602 0.82423788 115 169 170 0.046347987 -0.087188318 -0.99511307 0
0.12642005 0.085384741 0.82415414 117 172 179 0.033678483 -0.091107272 -0.99527138 0
0.12640758 0.086281888 0.82407278 116 171 178 0.017223001 -0.099553302 -0.99488318 0
0.12639247 0.087177068 0.82397431 114 172 180 -0.0024147292 -0.13384192 -0.9909997 0
0.12637061 0.088067286 0.82383174 114 172 180 -0.025545651 -0.19488378 -0.98049366 0
0.12633862 0.088950127 0.8236233 116 171 180 -0.04769418 -0.26938242 -0.96185154 0
0.12629567 0.089824639 0.82334328 116 171 180 -0.065951407 -0.33393523 -0.94028598 0
0.12624474 0.090692818 0.82301098 115 167 180 -0.076811656 -0.38410255 -0.92008984 0
0.1261863 0.091554858 0.82263011 115 167 180 -0.086411454 -0.42622796 -0.9004792 0
0.12612174 0.09241157 0.82220924 113 168 177 -0.094623208 -0.46693903 -0.87921232 0
0.12604952 0.093261667 0.82173836 111 166 175 -0.10547522 -0.52033234 -0.8474251 0
0.12596551 0.094101936 0.82119077 113 168 177 -0.12060682 -0.58789498 -0.79989594 0
0.12586577 0.094929121 0.82054055 114 169 178 -0.14060429 -0.64439899 -0.7516517 0
0.12575522 0.095746689 0.81982005 117 170 180 -0.16561139 -0.6864658 -0.70805192 0
0.12563254 0.096553348 0.81902039 118 171 181 -0.19489132 -0.72244138 -0.66339719 0
0.12549902 0.097349755 0.81814957 122 172 183 -0.22825466 -0.74254501 -0.62970382 0
0.12536059 0.098140508 0.81724739 124 174 185 -0.26698795 -0.74148446 -0.61556345 0
0.12522501 0.098931409 0.81636322 128 175 190 -0.30768836 -0.72904116 -0.61141384 0
0.12509198 0.099722512 0.81549621 127 174 189 -0.35124159 -0.70293492 -0.61847538 0
0.12497014 0.10052066 0.81470168 126 171 186 -0.40135017 -0.65299404 -0.64227462 0
0.1248633 0.10132931 0.81400549 125 170 185 -0.44589245 -0.5995369 -0.6646319 0
0.12476642 0.10214449 0.81337357 123 168 183 -0.47645628 -0.5590837 -0.67853874 0
0.12467679 0.10296427 0.81278932 122 167 182 -0.49759015 -0.51856571 -0.69533706 0
0.12459666 0.10379075 0.8122673 125 167 183 -0.504632 -0.48504695 -0.71419603 0
0.12452117 0.10461992 0.81177485 125 167 183 -0.49856427 -0.46666652 -0.73051769 0
0.12444942 0.1054512 0.81130707 121 168 183 -0.49070916 -0.43519646 -0.75485659 0
0.12438697 0.10628935 0.81089962 123 170 185 -0.48277965 -0.3985669 -0.77978736 0
0.12432919 0.10713067 0.81052309 122 171 185 -0.46584412 -0.39871204 -0.78994805 0
0.1242677 0.10796802 0.81012267 121 170 184 -0.44018513 -0.43153781 -0.78740841 0
0.12419995 0.10879892 0.80968106 118 170 183 -0.40395078 -0.48769787 -0.77393442 0
0.12412002 0.10961812 0.80915993 118 170 183 -0.35394976 -0.57006794 -0.74144602 0
0.12402184 0.1104199 0.80851978 117 171 183 -0.29934788 -0.65321016 -0.69549072 0
0.12390572 0.11120415 0.80776256 117 171 183 -0.25752145 -0.71332842 -0.65180153 0
0.12377584 0.11197432 0.80691582 112 173 183 -0.23328674 -0.75770175 -0.60947967 0
0.12363101 0.11272904 0.80597198 113 174 184 -0.2257591 -0.78754342 -0.57341784 0
0.12347786 0.11347397 0.80497348 114 173 184 -0.23290677 -0.79369581 -0.56196195 0
0.12332749 0.11421929 0.80399299 114 173 184 -0.24472262 -0.78034598 -0.57547462 0
0.12318564 0.11497045 0.80306852 116 170 182 -0.24605829 -0.76729023 -0.59221715 0
0.12304667 0.11572224 0.80216241 118 172 184 -0.23499428 -0.76421756 -0.60062402 0
0.12290893 0.11647326 0.80126464 120 172 185 -0.2243077 -0.7683171 -0.5994789 0
0.1227683 0.11721949 0.80034763 118 170 183 -0.22394338 -0.78070688 -0.58339185 0
0.12262128 0.1179575 0.79938883 122 172 183 -0.23968184 -0.78739572 -0.56794435 0
0.12247398 0.11869323 0.79842865 121 171 182 -0.27156579 -0.77212745 -0.57451844 0
0.12233687 0.11943682 0.79753512 121 174 184 -0.3060253 -0.74130791 -0.59733671 0
0.12221 0.1201885 0.79670823 124 177 187 -0.32591894 -0.71472991 -0.61881983 0
0.1220897 0.12094481 0.79592359 121 176 185 -0.33367249 -0.6935069 -0.63852251 0
0.12197594 0.12170602 0.79518235 118 173 182 -0.33795583 -0.6712935 -0.65965968 0
0.12186863 0.12247202 0.79448271 118 173 182 -0.33617064 -0.65537387 -0.67636847 0
0.12176421 0.12323935 0.79380184 116 171 180 -0.32560036 -0.64787722 -0.68865049 0
0.12166208 0.12400754 0.79313576 112 169 180 -0.30482343 -0.63750786 -0.70757794 0
0.12156461 0.12477911 0.79250056 112 169 180 -0.26894501 -0.63461322 -0.72452372 0
0.12146623 0.12554829 0.79185891 113 172 183 -0.22065797 -0.64810234 -0.72888523 0
0.12136475 0.12631285 0.7911973 113 172 183 -0.18123434 -0.65134293 -0.73682189 0
0.12126616 0.12707905 0.79055494 112 173 185 -0.15950821 -0.63302815 -0.75751728 0
0.12117377 0.12785034 0.7899527 113 174 186 -0.14986442 -0.61151344 -0.77691191 0
0.12108497 0.12862413 0.78937376 113 174 186 -0.14698154 -0.583489 -0.79870963 0
0.12100433 0.12940529 0.78884792 109 170 182 -0.14600059 -0.55044591 -0.82200557 0
0.12092839 0.1301904 0.78835273 108 167 180 -0.13698319 -0.54736555 -0.82560676 0
0.12084902 0.13097081 0.78783578 110 169 182 -0.12147873 -0.58682215 -0.80055153 0
0.12075839 0.13173762 0.78724438 113 172 185 -0.11390118 -0.64530063 -0.75538975 0
0.12065463 0.13248885 0.78656828 113 172 185 -0.11617228 -0.70693558 -0.69767195 0
0.12053373 0.1332196 0.78578013 115 174 187 -0.13064298 -0.75902241 -0.63782227 0
0.12039898 0.13393323 0.7849018 114 173 186 -0.16119958 -0.78526813 -0.59780318 0
0.12025902 0.13463911 0.78398955 112 171 184 -0.20678483 -0.78651255 -0.58192605 0
0.12012132 0.13534547 0.78309172 112 171 184 -0.25346723 -0.78308553 -0.5679186 0
0.11998051 0.13604631 0.78217351 127 174 189 -0.29281473 -0.7853477 -0.54542506 0
0.11983644 0.13674149 0.78123456 128 175 190 -0.31951919 -0.78998667 -0.52328616 0
0.11968769 0.13742919 0.78026462 125 172 187 -0.32471773 -0.80553514 -0.49565271 0
0.11952818 0.13810237 0.77922481 122 169 184 -0.31262809 -0.82689857 -0.46744236 0
0.1193595 0.13876259 0.77812535 119 168 182 -0.29967979 -0.83631915 -0.45908847 0
0.11919282 0.13942268 0.77703851 120 169 183 -0.28672808 -0.83871114 -0.46298003 0
0.11902539 0.14007947 0.77594668 121 170 184 -0.27291232 -0.84244746 -0.46454406 0
0.11885814 0.14073421 0.77485669 120 169 183 -0.26676583 -0.83805728 -0.47591597 0
0.11869811 0.14139508 0.77381343 122 170 182 -0.2656545 -0.82545006 -0.49805626 0
0.11854587 0.14206302 0.77282095 121 169 181 -0.26305503 -0.81196624 -0.52106917 0
0.11840045 0.14273691 0.77187276 121 171 180 -0.26059636 -0.78483701 -0.56224585 0
0.11827257 0.14343011 0.77103931 123 173 182 -0.25619328 -0.72815722 -0.63572955 0
0.11816685 0.14414848 0.7703501 125 173 185 -0.24011186 -0.6444971 -0.72592694 0
0.1180831 0.14489222 0.76980388 123 171 183 -0.20782523 -0.52280676 -0.8267296 0
0.11802504 0.14566655 0.76942575 117 169 184 -0.15498185 -0.34205016 -0.92681301 0
0.11799571 0.14647563 0.76923412 114 166 181 -0.088006377 -0.13466485 -0.98697537 0
0.11799105 0.14731516 0.76920384 100 163 179 -0.027468674 0.057203133 -0.99798465 0
0.11801062 0.14818507 0.76933169 89 152 168 0.011348226 0.24063343 -0.9705497 0
0.11805873 0.1490912 0.76964498 83 148 165 0.024206819 0.3943308 -0.91864973 0
0.1181327 0.15003091 0.77012724 88 153 170 0.017175168 0.49998495 -0.86586386 0
0.11822821 0.15099922 0.77075011 87 157 177 0.0015992688 0.56980568 -0.82177782 0
0.1183413 0.15199138 0.771487 85 155 175 -0.011533986 0.61476582 -0.78862536 0
0.11846715 0.15300179 0.77230769 77 148 170 -0.015696479 0.63296032 -0.77402508 0
0.11859441 0.15401579 0.77313733 75 146 168 -0.0078137759 0.63891661 -0.76923627 0
0.11872606 0.15503733 0.77399576 82 149 170 0.014955153 0.6520282 -0.75804728 0
0.11886661 0.15607236 0.77491164 82 149 170 0.048452895 0.66924721 -0.74145842 0
0.11901791 0.15712367 0.77589798 85 149 171 0.084323414 0.68272156 -0.72579676 0
0.11917745 0.15818807 0.7769379 87 151 173 0.1146939 0.70461512 -0.70025933 0
0.11936021 0.15928581 0.77812964 84 148 170 0.12989941 0.7331562 -0.66753882 0
0.11956401 0.16041434 0.77945822 84 148 170 0.12348446 0.76804364 -0.62837929 0
0.11980738 0.1615992 0.78104508 83 147 169 0.091087505 0.81015956 -0.57908934 0
0.12010077 0.1628553 0.78295761 82 146 168 0.0558392 0.85205781 -0.52046078 0
0.12047967 0.16423224 0.78542781 83 145 168 -0.045732211 0.8684243 -0.49370837 0
0.12558582 0.17749064 0.81871563 45 129 154 0.022130338 0.90390795 -0.42715421 0
0.12612621 0.17915796 0.82223862 46 120 148 0.017491324 0.89864075 -0.4383367 0
0.12662424 0.18077242 0.82548511 17 91 119 0.012185725 0.88656783 -0.46243796 0
